246.891900;15518.867000;27.019800;255;0;0;0.015238
239.810100;15515.457800;8.522100;255;0;0;0.014880
242.540300;15517.090700;10.693900;255;0;0;0.020356
242.711299;15517.157000;24.984800;255;0;0;0.020594
237.966600;15514.072900;15.400100;255;0;0;0.013809
237.589700;15513.749800;8.729700;255;0;0;0.010357
241.491300;15516.513900;15.404300;255;0;0;0.016904
238.946400;15514.841500;21.728500;255;0;0;0.014880
240.894400;15516.154300;9.004100;255;0;0;0.010714
247.134200;15518.947800;16.477200;255;0;0;0.015357
238.233400;15514.282500;22.062999;255;0;0;0.023213
245.680101;15518.468100;14.064700;255;0;0;0.018451
239.847900;15515.475800;15.605900;255;0;0;0.016547
240.639600;15515.969700;24.325799;255;0;0;0.014880
237.030800;15513.290000;9.261600;255;0;0;0.021189
243.932201;15517.754300;20.554401;255;0;0;0.015357
235.626900;15511.939900;8.808100;255;0;0;0.019047
236.926400;15513.141400;24.056800;255;0;0;0.011667
238.168900;15514.216700;26.462400;255;0;0;0.011190
237.456700;15513.635100;15.448600;255;0;0;0.010833
237.073500;15513.315200;18.035100;255;0;0;0.010476
237.047900;15513.007700;22.664399;255;0;0;0.017618
232.854500;15508.540900;9.624600;255;0;0;0.010714
238.175300;15514.222600;25.955699;255;0;0;0.019761
236.769600;15513.034500;17.974000;255;0;0;0.011309
240.899200;15516.166800;16.044900;255;0;0;0.020237
238.125600;15514.204900;26.908799;255;0;0;0.012976
237.213800;15513.427200;16.271600;255;0;0;0.010476
234.779000;15511.016100;10.575100;255;0;0;0.013690
235.364800;15511.650500;6.510200;255;0;0;0.013571
236.406600;15512.698100;21.485700;255;0;0;0.010476
237.070500;15513.013500;7.162800;255;0;0;0.013809
236.804200;15513.078400;8.450500;255;0;0;0.014999
235.575500;15511.889600;9.262100;255;0;0;0.019166
235.485700;15511.796400;12.750700;255;0;0;0.017975
237.130000;15513.365300;15.770600;255;0;0;0.018451
237.337000;15513.541700;18.065200;255;0;0;0.012262
235.575000;15511.885400;10.455200;255;0;0;0.018451
234.667300;15510.890000;6.506600;255;0;0;0.018094
232.918600;15508.632000;10.637800;255;0;0;0.012857
237.026600;15513.287100;17.579000;255;0;0;0.020356
234.683200;15510.575900;6.751700;255;0;0;0.017618
233.020500;15508.784100;11.291000;255;0;0;0.014047
228.208300;15491.604900;8.015600;255;0;0;0.010595
229.764900;15485.024099;9.277600;255;0;0;0.014523
235.847700;15512.157100;11.084500;255;0;0;0.016309
232.367300;15507.812800;11.390600;255;0;0;0.017142
233.673600;15509.666500;11.188200;255;0;0;0.012619
229.189500;15500.071600;7.232900;255;0;0;0.021070
228.149200;15493.469500;8.857600;255;0;0;0.022142
228.188800;15494.774700;7.992200;255;0;0;0.013571
233.379900;15509.283000;6.465000;255;0;0;0.014523
233.964600;15510.059300;8.461900;255;0;0;0.024641
228.362500;15489.849199;7.769500;255;0;0;0.010238
228.344100;15493.342800;9.484500;255;0;0;0.017737
229.308900;15501.159300;8.849000;255;0;0;0.011786
229.280200;15501.056500;8.849900;255;0;0;0.012738
230.191500;15503.619000;8.861000;255;0;0;0.023213
229.112900;15500.462300;7.997000;255;0;0;0.010000
229.505600;15501.843700;7.329000;255;0;0;0.011667
228.324400;15490.149099;7.797900;255;0;0;0.010357
228.452000;15489.159100;6.258400;255;0;0;0.019047
230.268400;15503.278700;8.980400;255;0;0;0.013333
230.399900;15504.093700;8.858400;255;0;0;0.020475
228.353700;15489.861200;7.466600;255;0;0;0.016785
228.556300;15496.706400;10.667100;255;0;0;0.016190
229.237300;15486.035700;12.458100;255;0;0;0.019166
230.794400;15505.013500;9.823800;255;0;0;0.012619
230.842700;15478.465900;11.180900;255;0;0;0.011190
228.781600;15489.588499;11.003900;255;0;0;0.010952
230.708000;15478.395500;12.743800;255;0;0;0.012143
228.355100;15493.532900;11.066600;255;0;0;0.016904
230.062700;15503.255000;11.292600;255;0;0;0.014999
229.242500;15486.039900;12.258400;255;0;0;0.021665
230.499400;15504.304300;11.321200;255;0;0;0.013333
229.202800;15500.036700;13.437300;255;0;0;0.012857
228.514300;15490.526899;11.094400;255;0;0;0.010357
228.340500;15493.347000;9.971200;255;0;0;0.020951
228.856300;15489.628401;10.603200;255;0;0;0.011428
229.164400;15485.963400;10.254600;255;0;0;0.019642
230.564400;15478.173698;12.234900;255;0;0;0.011190
230.826500;15478.456600;11.761400;255;0;0;0.010714
229.785400;15502.548100;11.296000;255;0;0;0.011547
231.521100;15506.403600;7.865400;255;0;0;0.012024
231.645700;15506.644000;8.809000;255;0;0;0.022737
229.809500;15485.041800;13.602400;255;0;0;0.010119
233.251900;15509.093200;15.756400;255;0;0;0.013571
228.262300;15490.963699;14.589400;255;0;0;0.015476
230.791500;15505.008800;16.018300;255;0;0;0.012857
228.870200;15499.530001;14.596700;255;0;0;0.010119
233.717100;15509.732000;15.147000;255;0;0;0.017499
228.361500;15494.148500;14.365800;255;0;0;0.012857
230.833600;15504.445600;14.395300;255;0;0;0.012619
228.521800;15490.447901;14.370000;255;0;0;0.022737
228.166400;15494.852800;17.933200;255;0;0;0.013928
228.180900;15495.146500;17.238100;255;0;0;0.015476
228.781600;15489.588200;17.175600;255;0;0;0.011905
229.525300;15501.814500;17.412900;255;0;0;0.010238
229.783100;15485.029699;13.449800;255;0;0;0.011786
235.579600;15511.884300;17.235000;255;0;0;0.014880
234.683500;15510.581800;15.951800;255;0;0;0.011071
228.213600;15495.516800;17.730300;255;0;0;0.010119
228.356200;15496.679300;17.893900;255;0;0;0.012262
228.557800;15496.700199;20.458900;255;0;0;0.010476
229.442500;15500.872200;17.677500;255;0;0;0.019761
228.187500;15495.160801;17.541900;255;0;0;0.010357
229.209100;15485.842800;17.884400;255;0;0;0.011786
229.377900;15501.355700;17.917500;255;0;0;0.010238
229.073100;15500.096200;18.837699;255;0;0;0.014047
228.561600;15488.555901;20.350200;255;0;0;0.011786
228.767700;15489.581100;19.950000;255;0;0;0.012619
228.656900;15488.110901;17.763800;255;0;0;0.019880
234.682100;15510.583000;16.174400;255;0;0;0.010952
228.387100;15489.664900;17.916300;255;0;0;0.013452
234.659000;15510.597900;20.362199;255;0;0;0.012857
234.311900;15510.471900;15.412500;255;0;0;0.017261
232.499400;15508.037500;20.114700;255;0;0;0.022380
229.338600;15485.381800;21.644000;255;0;0;0.015714
228.805300;15489.841700;24.286599;255;0;0;0.017975
228.778100;15487.682301;17.489200;255;0;0;0.014999
228.147700;15494.006701;24.339900;255;0;0;0.011667
231.526500;15506.409900;17.927700;255;0;0;0.014285
230.564400;15478.188900;19.257100;255;0;0;0.015833
230.793600;15504.986400;19.537700;255;0;0;0.013571
229.268800;15485.647699;17.719700;255;0;0;0.011905
228.161800;15494.802299;21.205800;255;0;0;0.014285
228.284500;15496.052700;24.458200;255;0;0;0.024879
229.305900;15485.509701;21.199100;255;0;0;0.013214
228.319000;15493.337400;24.061799;255;0;0;0.013571
228.567900;15489.931601;17.159700;255;0;0;0.012500
228.227300;15495.632500;17.150600;255;0;0;0.011071
229.417400;15485.158600;21.192199;255;0;0;0.010952
229.154700;15500.661200;24.449901;255;0;0;0.018332
234.001100;15510.080600;17.679400;255;0;0;0.011905
228.712200;15498.861799;24.483100;255;0;0;0.023570
228.546800;15489.969700;20.943401;255;0;0;0.011309
230.185400;15503.616100;22.048101;255;0;0;0.010357
228.926400;15486.958599;21.135499;255;0;0;0.020832
229.651900;15500.658800;24.287401;255;0;0;0.019642
230.648100;15478.360298;22.682000;255;0;0;0.010714
229.332900;15501.257200;25.351699;255;0;0;0.014523
230.951500;15503.662900;24.284299;255;0;0;0.023570
229.790300;15485.033600;20.982801;255;0;0;0.013333
234.596300;15510.794700;19.457700;255;0;0;0.010357
235.638900;15511.927800;26.762901;255;0;0;0.020237
230.763100;15503.858400;24.288400;255;0;0;0.019523
228.214300;15491.524900;21.193200;255;0;0;0.011786
237.545700;15513.719400;27.031600;255;0;0;0.010238
236.954200;15512.925000;27.546501;255;0;0;0.013571
230.803600;15504.976800;25.980600;255;0;0;0.016309
235.760100;15512.066700;24.835700;255;0;0;0.013928
232.949800;15508.665900;21.580400;255;0;0;0.011547
231.294500;15505.992900;23.496999;255;0;0;0.013452
238.745800;15514.355100;27.597900;255;0;0;0.012500
231.242400;15505.839600;24.323400;255;0;0;0.015119
245.106900;15517.987200;27.571000;255;0;0;0.024641
230.795000;15505.021300;25.664100;255;0;0;0.017499
233.789100;15509.819300;24.573501;255;0;0;0.020951
228.646000;15488.164700;20.837301;255;0;0;0.017856
232.354000;15507.163200;24.298299;255;0;0;0.010357
235.415200;15511.702500;26.997899;255;0;0;0.015595
232.793500;15508.437100;24.689300;255;0;0;0.013333
233.668400;15509.640600;24.490199;255;0;0;0.010833
228.746400;15499.093300;27.394901;255;0;0;0.012619
228.146100;15493.340200;26.121499;255;0;0;0.011190
230.801500;15504.981300;27.052800;255;0;0;0.012738
236.253600;15511.986400;27.598100;255;0;0;0.011667
228.833900;15489.249901;29.207200;255;0;0;0.019285
228.458700;15489.604601;27.819801;255;0;0;0.015238
233.879700;15509.918500;4.545100;255;0;0;0.010238
233.318200;15509.164300;4.669400;255;0;0;0.012500
235.014000;15511.267800;4.503700;255;0;0;0.011428
238.140500;15514.175100;4.727300;255;0;0;0.016904
234.580200;15510.799600;6.028600;255;0;0;0.023689
235.031600;15511.274900;5.435700;255;0;0;0.010357
236.920200;15513.190100;6.008500;255;0;0;0.016309
235.264500;15511.541800;5.140900;255;0;0;0.015119
229.291300;15501.117200;5.554800;255;0;0;0.017618
232.218400;15507.550500;4.660100;255;0;0;0.011428
228.493200;15497.656500;5.549000;255;0;0;0.012619
246.878600;15518.872900;16.451700;255;0;0;0.022856
246.399100;15518.713900;19.086900;255;0;0;0.011428
245.675401;15518.468600;16.102200;255;0;0;0.019166
239.419400;15514.902400;11.053300;255;0;0;0.017380
237.896600;15514.024300;9.226500;255;0;0;0.010595
248.935399;15519.420700;17.079300;255;0;0;0.013095
244.601400;15518.039400;25.252500;255;0;0;0.013928
247.034400;15518.907900;26.217901;255;0;0;0.010238
239.732100;15515.131500;9.273000;255;0;0;0.011547
238.612700;15514.588900;11.084800;255;0;0;0.014761
238.173800;15514.220200;24.086999;255;0;0;0.016785
248.949800;15519.326300;12.905100;255;0;0;0.010476
236.819100;15513.090800;18.131500;255;0;0;0.017975
239.897400;15515.506900;24.805600;255;0;0;0.011428
242.446500;15516.889700;11.041300;255;0;0;0.019761
239.595500;15515.255900;26.351400;255;0;0;0.024046
236.556400;15512.856700;11.633700;255;0;0;0.021427
237.029900;15513.279400;17.798000;255;0;0;0.014166
241.877700;15516.724800;24.959701;255;0;0;0.013690
245.255700;15518.052700;14.376200;255;0;0;0.020475
247.080800;15518.923900;26.905700;255;0;0;0.012024
239.793100;15515.434100;24.547300;255;0;0;0.011786
240.925900;15516.168000;26.599799;255;0;0;0.011905
239.616400;15515.318200;10.725900;255;0;0;0.011309
237.181000;15513.010600;17.697100;255;0;0;0.012976
236.145000;15512.465100;21.433400;255;0;0;0.020832
238.101200;15514.197100;20.147901;255;0;0;0.019404
234.588000;15510.798500;6.955200;255;0;0;0.018690
235.025700;15511.292500;10.595800;255;0;0;0.010238
238.847900;15514.777600;15.087900;255;0;0;0.020832
242.466000;15517.025900;25.357499;255;0;0;0.016309
232.373300;15507.838200;8.812800;255;0;0;0.018332
239.590700;15515.282200;22.267700;255;0;0;0.012738
237.348000;15513.532500;24.342500;255;0;0;0.010595
235.217200;15511.500500;8.466400;255;0;0;0.017618
236.667200;15512.916600;24.448699;255;0;0;0.018332
236.607600;15512.888900;25.231000;255;0;0;0.010238
234.519300;15510.714100;13.491100;255;0;0;0.018332
236.659200;15512.934800;11.397300;255;0;0;0.011786
235.585200;15511.886300;12.741100;255;0;0;0.010238
235.413200;15511.704900;10.611300;255;0;0;0.012143
234.527300;15510.715100;7.300900;255;0;0;0.010476
228.201900;15491.692699;9.624500;255;0;0;0.019880
228.419500;15489.333200;6.262000;255;0;0;0.023451
235.053100;15511.332700;10.539600;255;0;0;0.016904
233.374600;15509.291700;13.745100;255;0;0;0.023570
232.460300;15507.964000;11.707000;255;0;0;0.016428
229.799500;15485.039000;6.982900;255;0;0;0.011309
233.149900;15508.967100;6.500100;255;0;0;0.015714
229.083700;15486.294399;7.613200;255;0;0;0.018928
229.222400;15500.853000;7.996100;255;0;0;0.010952
229.204800;15500.049500;6.163200;255;0;0;0.012262
228.353700;15493.653099;7.753300;255;0;0;0.014523
230.811100;15478.448101;12.940100;255;0;0;0.010595
229.805300;15485.040800;12.675500;255;0;0;0.011071
229.526600;15501.812000;6.920900;255;0;0;0.014642
229.374500;15501.357600;7.996700;255;0;0;0.010476
228.563100;15496.699699;6.049800;255;0;0;0.016190
229.204000;15500.051600;7.474500;255;0;0;0.011905
229.788500;15485.031300;12.769900;255;0;0;0.010595
228.877700;15499.551001;11.293700;255;0;0;0.013095
230.354200;15503.458900;7.766400;255;0;0;0.018928
228.349400;15493.328800;12.961200;255;0;0;0.012857
229.340400;15486.066000;13.158700;255;0;0;0.019999
229.536300;15501.811400;12.668500;255;0;0;0.011309
230.649200;15504.654100;12.149900;255;0;0;0.011905
231.576600;15506.500700;8.408100;255;0;0;0.013214
231.506700;15478.816601;15.172600;255;0;0;0.012262
233.958800;15510.047100;15.386800;255;0;0;0.022737
229.295500;15501.091600;15.454100;255;0;0;0.016904
232.610800;15508.189600;15.750700;255;0;0;0.020237
229.126300;15486.129499;14.203300;255;0;0;0.016428
229.538500;15501.844800;14.594700;255;0;0;0.012619
228.495800;15490.585899;14.358200;255;0;0;0.011547
228.655000;15498.509001;16.703900;255;0;0;0.010357
228.202100;15495.516600;14.515900;255;0;0;0.022261
231.633000;15506.592300;14.924400;255;0;0;0.011905
228.642700;15498.503700;20.048299;255;0;0;0.016785
228.551800;15488.599199;14.128700;255;0;0;0.014166
233.949800;15510.034700;18.175500;255;0;0;0.022856
233.379200;15509.275100;19.166000;255;0;0;0.014761
229.466400;15501.651800;18.758100;255;0;0;0.020832
234.740300;15510.966000;14.942700;255;0;0;0.017499
230.272300;15503.261200;16.346800;255;0;0;0.024046
228.412400;15497.152300;18.746299;255;0;0;0.010000
228.568600;15489.930000;16.753600;255;0;0;0.013452
230.596200;15478.322601;18.268501;255;0;0;0.024998
228.871200;15489.633801;17.211200;255;0;0;0.010476
228.760900;15489.590300;20.966800;255;0;0;0.024046
229.159700;15485.982000;23.015500;255;0;0;0.017618
228.356700;15489.843000;21.802499;255;0;0;0.013809
229.345500;15485.365000;17.451800;255;0;0;0.021546
229.295800;15486.049400;22.283599;255;0;0;0.018213
228.559700;15496.687401;20.255399;255;0;0;0.013690
228.330200;15493.336300;22.956600;255;0;0;0.012619
229.635300;15484.476000;18.455301;255;0;0;0.024998
229.038500;15486.533899;24.088399;255;0;0;0.017737
229.166300;15486.009600;23.547599;255;0;0;0.016309
228.752000;15489.576900;20.466899;255;0;0;0.016309
228.447200;15497.319799;24.516401;255;0;0;0.010119
233.240200;15509.081800;25.929500;255;0;0;0.016190
228.544200;15488.616899;21.120500;255;0;0;0.017975
229.195200;15500.036000;20.254400;255;0;0;0.015476
247.077100;15518.923800;27.456600;255;0;0;0.013214
232.216600;15507.561700;24.555101;255;0;0;0.010476
231.330800;15478.719200;23.901700;255;0;0;0.010000
230.324500;15503.337800;20.985500;255;0;0;0.022142
233.747600;15509.779800;21.544000;255;0;0;0.022856
233.295500;15509.163600;25.830100;255;0;0;0.017499
231.562900;15506.451800;26.251300;255;0;0;0.020951
242.528600;15517.005100;27.548999;255;0;0;0.012143
228.689800;15497.611700;20.972200;255;0;0;0.010476
228.835800;15487.362801;20.813100;255;0;0;0.016547
228.633500;15498.543501;22.283300;255;0;0;0.010119
228.573500;15489.921499;23.427600;255;0;0;0.018690
232.828100;15508.481800;24.558900;255;0;0;0.011190
234.489700;15510.631000;24.237899;255;0;0;0.021546
229.168500;15485.979000;22.270000;255;0;0;0.010238
228.172600;15492.163799;24.460700;255;0;0;0.019404
236.441100;15512.379600;27.587600;255;0;0;0.022261
231.576000;15506.492200;24.939901;255;0;0;0.012262
245.037900;15517.965900;27.554401;255;0;0;0.020356
232.204000;15507.549600;21.940400;255;0;0;0.010476
230.789700;15504.991700;23.271600;255;0;0;0.013214
230.673300;15504.165900;20.995599;255;0;0;0.012262
228.469700;15497.446301;24.294900;255;0;0;0.011428
230.834200;15505.063600;24.350499;255;0;0;0.012262
229.044400;15500.100700;22.101600;255;0;0;0.010952
230.067400;15503.377800;21.164199;255;0;0;0.016785
228.692000;15487.941299;21.046701;255;0;0;0.024165
228.415500;15489.407801;24.190299;255;0;0;0.019523
229.796300;15485.033501;20.802400;255;0;0;0.010357
229.355300;15501.363500;24.314901;255;0;0;0.014999
230.606400;15504.582200;24.467901;255;0;0;0.014761
234.926500;15511.157300;22.002000;255;0;0;0.010952
229.203900;15500.038600;22.974300;255;0;0;0.020832
231.310500;15505.976000;24.492601;255;0;0;0.015714
230.270200;15503.262500;22.743301;255;0;0;0.019047
234.253400;15510.388100;21.940799;255;0;0;0.010357
232.549000;15508.083600;22.140001;255;0;0;0.011547
235.256800;15511.530500;21.627401;255;0;0;0.014999
231.141800;15505.654900;24.355199;255;0;0;0.024641
230.550700;15504.453600;25.354699;255;0;0;0.016785
230.842100;15505.119000;23.973399;255;0;0;0.019642
236.644100;15512.533700;27.593000;255;0;0;0.016904
233.982100;15510.039300;22.058299;255;0;0;0.019047
233.882500;15509.918300;24.461299;255;0;0;0.010119
234.470500;15510.645300;24.950799;255;0;0;0.010714
228.756400;15496.759899;27.596000;255;0;0;0.010238
229.431800;15500.449300;27.595100;255;0;0;0.011905
232.145900;15506.949200;27.587501;255;0;0;0.021070
234.547600;15510.736900;26.786901;255;0;0;0.010714
233.631400;15509.591000;4.180000;255;0;0;0.015357
235.485700;15511.757400;4.687500;255;0;0;0.010119
233.028100;15508.773100;4.188400;255;0;0;0.024165
233.445000;15509.343100;4.667700;255;0;0;0.012976
235.592400;15511.891300;5.136800;255;0;0;0.010000
235.182300;15511.446700;6.392000;255;0;0;0.011667
235.034200;15511.285200;4.874400;255;0;0;0.011190
234.985300;15511.227700;5.109100;255;0;0;0.010238
229.503200;15501.844000;5.933300;255;0;0;0.013928
234.014800;15510.100500;5.513200;255;0;0;0.010238
234.983100;15511.223600;5.244300;255;0;0;0.010119
233.383200;15509.285500;6.135600;255;0;0;0.013452
228.543400;15496.732201;5.778800;255;0;0;0.015357
229.363600;15501.349300;5.551100;255;0;0;0.013928
239.601100;15515.323200;13.094300;255;0;0;0.024165
243.926700;15517.751400;15.953600;255;0;0;0.014642
243.930400;15517.751200;16.436400;255;0;0;0.012857
246.386501;15518.709500;16.531600;255;0;0;0.019047
238.658300;15514.547400;17.650000;255;0;0;0.010476
236.367900;15512.661900;25.251600;255;0;0;0.010833
239.728300;15515.131900;13.552600;255;0;0;0.014523
241.259800;15516.344000;24.426500;255;0;0;0.021904
236.916600;15513.191900;6.831000;255;0;0;0.020713
237.899800;15514.018000;22.286500;255;0;0;0.014404
242.477600;15517.028400;11.046200;255;0;0;0.014999
237.553500;15513.720400;20.171001;255;0;0;0.011190
236.929300;15513.188100;7.181600;255;0;0;0.010357
236.900800;15513.150500;25.962400;255;0;0;0.024046
236.914000;15513.193000;9.459900;255;0;0;0.023808
238.669200;15514.638300;15.403000;255;0;0;0.016904
235.153600;15511.421200;7.553200;255;0;0;0.012976
236.954400;15513.114700;22.144401;255;0;0;0.010476
240.903200;15516.162200;16.210000;255;0;0;0.014285
237.407200;15513.594000;15.953200;255;0;0;0.012024
235.583500;15511.887500;12.966900;255;0;0;0.012500
234.589300;15510.797800;10.910100;255;0;0;0.017737
238.677600;15514.627900;22.057300;255;0;0;0.017856
239.623700;15515.238600;22.257100;255;0;0;0.012381
235.579000;15511.883200;6.763700;255;0;0;0.013571
236.675400;15512.623800;17.694900;255;0;0;0.015119
234.772000;15511.008500;12.831500;255;0;0;0.021189
235.582800;15511.885600;13.533100;255;0;0;0.012500
233.242800;15509.110100;10.623700;255;0;0;0.021784
233.379200;15509.282400;10.258300;255;0;0;0.013690
229.359900;15486.080601;8.898800;255;0;0;0.014999
232.519500;15508.059900;13.790200;255;0;0;0.020237
228.453800;15489.134800;7.945700;255;0;0;0.020951
231.955000;15507.164600;8.808100;255;0;0;0.019047
232.317600;15507.750900;11.514700;255;0;0;0.024046
229.565400;15501.934500;8.020000;255;0;0;0.012619
230.650100;15478.363602;8.934700;255;0;0;0.010119
228.353600;15493.323799;7.555400;255;0;0;0.016547
229.457300;15501.653000;8.851900;255;0;0;0.014642
232.587100;15508.153800;13.793700;255;0;0;0.015952
228.353900;15493.319000;7.263300;255;0;0;0.016666
228.683700;15498.651400;7.994800;255;0;0;0.011786
230.269400;15503.257100;7.475100;255;0;0;0.017261
228.432700;15489.258900;7.643900;255;0;0;0.023451
230.264700;15503.279900;9.757300;255;0;0;0.011190
230.487400;15503.773200;7.761000;255;0;0;0.020356
228.331700;15490.017300;11.238400;255;0;0;0.016904
228.539200;15496.732700;12.957500;255;0;0;0.016785
228.160000;15494.184000;12.151100;255;0;0;0.015476
230.255500;15503.254600;13.461100;255;0;0;0.010000
228.345300;15493.325399;13.452400;255;0;0;0.017856
231.124000;15478.613701;11.478100;255;0;0;0.010833
230.273500;15503.250500;6.087000;255;0;0;0.023332
228.445900;15489.411100;10.080700;255;0;0;0.010476
228.577600;15489.932301;10.305500;255;0;0;0.018213
228.185400;15491.595200;11.260400;255;0;0;0.011071
228.348000;15493.322901;10.445300;255;0;0;0.010833
229.224100;15500.854300;11.295700;255;0;0;0.011428
231.513900;15506.387800;12.897500;255;0;0;0.011667
232.407600;15507.871500;14.837000;255;0;0;0.012857
229.254700;15486.482901;14.191300;255;0;0;0.012619
228.582200;15488.522800;15.440800;255;0;0;0.015357
232.834100;15508.501400;15.759300;255;0;0;0.015595
230.812500;15504.981200;15.550300;255;0;0;0.010952
229.651000;15502.176600;14.595700;255;0;0;0.011667
228.585900;15496.655600;14.394600;255;0;0;0.011547
234.785400;15511.012600;15.067300;255;0;0;0.016428
228.351200;15493.337099;16.958900;255;0;0;0.019047
229.377100;15500.633700;14.373200;255;0;0;0.022856
228.571900;15489.918400;19.457200;255;0;0;0.013333
234.415300;15510.588000;15.298800;255;0;0;0.011547
235.792700;15512.112800;15.342000;255;0;0;0.023213
230.531500;15503.758900;14.393600;255;0;0;0.014166
230.262200;15503.256900;14.000200;255;0;0;0.014880
228.746400;15489.567900;17.516600;255;0;0;0.010357
228.347700;15493.304899;20.244701;255;0;0;0.011190
228.714700;15497.438400;14.384700;255;0;0;0.021665
228.686900;15498.452499;17.641600;255;0;0;0.014999
229.783400;15502.557500;14.596600;255;0;0;0.010952
228.147500;15493.606800;15.453700;255;0;0;0.018213
232.501900;15508.035200;19.908901;255;0;0;0.018571
234.167600;15509.932900;17.661800;255;0;0;0.011428
230.793800;15504.981800;20.746499;255;0;0;0.016904
230.244000;15503.293500;16.539800;255;0;0;0.015952
229.515200;15484.865299;16.778300;255;0;0;0.010595
229.171600;15500.659400;14.621900;255;0;0;0.014880
231.294200;15478.711399;18.185800;255;0;0;0.019047
230.664000;15478.384998;19.461500;255;0;0;0.024522
230.566400;15478.194500;18.504899;255;0;0;0.015595
229.279000;15486.479000;17.503500;255;0;0;0.012381
228.562500;15488.552099;16.609900;255;0;0;0.011905
231.911400;15507.083800;15.405100;255;0;0;0.014404
228.345800;15490.089600;18.744899;255;0;0;0.010238
228.132900;15493.968000;17.822100;255;0;0;0.012024
230.945900;15478.526501;18.460401;255;0;0;0.018094
228.809300;15498.064600;17.694500;255;0;0;0.012024
230.572100;15503.955700;20.984500;255;0;0;0.023332
234.611100;15510.812200;20.081399;255;0;0;0.010119
231.475500;15478.808998;21.230199;255;0;0;0.021308
229.538600;15500.059300;24.284400;255;0;0;0.022499
228.117700;15492.941500;21.205800;255;0;0;0.023689
228.142700;15493.847799;22.059301;255;0;0;0.023808
228.145800;15493.342300;25.405799;255;0;0;0.013214
232.562100;15507.659600;24.287200;255;0;0;0.021546
228.193700;15495.139700;24.315500;255;0;0;0.010833
230.647100;15503.644700;24.286399;255;0;0;0.021427
230.165600;15503.549200;24.354499;255;0;0;0.017261
228.469800;15490.856100;20.962200;255;0;0;0.013571
228.740200;15499.034201;21.721299;255;0;0;0.011309
228.521700;15488.702600;24.135301;255;0;0;0.024760
228.783000;15499.240200;21.211801;255;0;0;0.010119
228.759300;15489.574800;23.477399;255;0;0;0.011547
235.804300;15512.106000;25.363000;255;0;0;0.024522
232.377400;15507.408400;24.289501;255;0;0;0.011190
228.375600;15494.457800;24.243900;255;0;0;0.019642
230.259800;15503.256700;23.735700;255;0;0;0.015952
229.294300;15485.535299;24.495700;255;0;0;0.016666
228.795200;15499.233500;24.373599;255;0;0;0.024522
230.100200;15503.396500;22.048000;255;0;0;0.010357
233.034500;15508.757500;24.454400;255;0;0;0.024641
231.306300;15478.707001;20.993100;255;0;0;0.010000
229.543500;15484.765499;21.183900;255;0;0;0.021784
230.571900;15478.193298;20.912099;255;0;0;0.010119
231.933200;15506.667100;24.273200;255;0;0;0.014047
234.293700;15509.960500;24.298400;255;0;0;0.010833
232.341300;15506.956300;24.298600;255;0;0;0.010000
234.254500;15510.356500;24.243400;255;0;0;0.015952
231.855900;15506.968800;22.057000;255;0;0;0.019285
236.962800;15512.637000;27.599201;255;0;0;0.010833
228.153900;15492.670200;24.327600;255;0;0;0.022380
228.750400;15489.573299;23.755000;255;0;0;0.014404
230.489800;15503.817000;24.242500;255;0;0;0.015833
229.027800;15497.627399;24.289501;255;0;0;0.016785
232.229700;15507.589500;21.776000;255;0;0;0.010833
230.786300;15504.982100;23.955400;255;0;0;0.019285
228.129800;15493.060400;25.939800;255;0;0;0.010476
230.285700;15503.845900;25.349799;255;0;0;0.012024
228.201600;15491.695801;27.305200;255;0;0;0.012857
228.148500;15493.346399;26.368200;255;0;0;0.017618
232.811300;15508.470600;27.529100;255;0;0;0.020118
237.059300;15513.300900;27.119399;255;0;0;0.010238
231.567700;15506.446500;26.764200;255;0;0;0.019047
237.946100;15514.052600;27.164199;255;0;0;0.012143
228.368800;15496.750299;27.447500;255;0;0;0.010238
232.618800;15508.168600;4.459000;255;0;0;0.013928
233.880900;15509.921900;4.674100;255;0;0;0.011428
232.759200;15508.381500;4.254100;255;0;0;0.020594
234.474200;15510.635000;4.556000;255;0;0;0.012976
232.637700;15508.205600;4.678700;255;0;0;0.010476
232.823000;15508.469500;4.672300;255;0;0;0.012738
235.578500;15511.880700;6.059500;255;0;0;0.012262
232.505200;15508.027700;6.186000;255;0;0;0.010952
235.404800;15511.687700;5.175800;255;0;0;0.010119
235.571900;15511.871100;5.850900;255;0;0;0.011071
236.783700;15513.058100;5.105300;255;0;0;0.015952
234.544100;15510.695000;5.987700;255;0;0;0.011428
238.095400;15514.198000;6.046100;255;0;0;0.019285
229.027100;15500.160600;5.547600;255;0;0;0.010714
234.079500;15510.184300;5.050100;255;0;0;0.016071
229.219700;15500.861100;5.552200;255;0;0;0.015119
246.997100;15518.900000;23.626800;255;0;0;0.013928
240.891100;15516.162000;17.353700;255;0;0;0.022499
237.347900;15513.546700;18.193700;255;0;0;0.010119
245.453700;15518.124400;20.973501;255;0;0;0.023094
239.126600;15514.942700;24.249999;255;0;0;0.010595
242.546800;15517.090600;10.710300;255;0;0;0.017380
236.916200;15513.192800;13.271400;255;0;0;0.021904
236.921300;15513.182100;11.213600;255;0;0;0.012500
236.611500;15512.894300;24.767700;255;0;0;0.011905
236.712800;15512.989100;18.113000;255;0;0;0.015238
238.385800;15514.411300;15.150600;255;0;0;0.013214
239.563700;15515.292800;17.689600;255;0;0;0.023570
236.201800;15512.502300;25.361400;255;0;0;0.023808
234.454800;15510.136100;11.090400;255;0;0;0.018928
232.507900;15508.029100;6.963900;255;0;0;0.011309
237.073400;15513.014300;15.944300;255;0;0;0.017142
232.609100;15507.689800;11.086300;255;0;0;0.022380
238.774600;15514.701700;24.627000;255;0;0;0.010833
234.216100;15510.361500;11.078200;255;0;0;0.022023
237.962400;15514.043500;17.900100;255;0;0;0.010238
236.781200;15513.016400;24.246200;255;0;0;0.013809
233.757800;15509.647600;11.049200;255;0;0;0.010000
233.384200;15509.288000;9.432400;255;0;0;0.012024
232.294500;15507.723800;8.812400;255;0;0;0.024522
228.278700;15495.864799;7.991400;255;0;0;0.014523
228.441500;15489.275801;8.132300;255;0;0;0.011071
233.381800;15509.288700;10.759600;255;0;0;0.016190
229.765500;15485.022400;8.780600;255;0;0;0.012619
229.235600;15485.752001;7.766900;255;0;0;0.011309
228.189400;15491.975100;7.992200;255;0;0;0.012857
230.277200;15503.284900;7.756000;255;0;0;0.014166
229.248300;15486.034300;6.950500;255;0;0;0.013809
230.206300;15503.627300;7.991100;255;0;0;0.016666
229.173500;15500.674900;8.019800;255;0;0;0.012738
228.488200;15490.780399;11.090500;255;0;0;0.014404
230.858100;15504.621700;7.757100;255;0;0;0.011667
228.584400;15488.364201;7.759400;255;0;0;0.018451
230.512500;15504.336400;8.018900;255;0;0;0.010952
229.768800;15485.022900;10.771900;255;0;0;0.011905
228.211900;15491.557800;12.158100;255;0;0;0.023094
229.253000;15486.038401;11.953800;255;0;0;0.017261
229.776900;15485.026199;13.165300;255;0;0;0.011547
229.513500;15501.790200;11.295500;255;0;0;0.011905
228.449400;15489.389799;10.213800;255;0;0;0.010119
230.882100;15505.128000;8.019000;255;0;0;0.010833
229.319700;15500.371900;11.084200;255;0;0;0.022856
228.549400;15496.709101;10.470600;255;0;0;0.010714
233.769500;15509.809000;15.409300;255;0;0;0.022142
228.184000;15495.141800;16.464900;255;0;0;0.011905
229.340200;15486.058399;13.756100;255;0;0;0.012976
228.865100;15499.501900;14.595500;255;0;0;0.011309
230.957200;15478.527401;18.749999;255;0;0;0.013690
230.873400;15504.629000;14.371700;255;0;0;0.021784
228.409200;15489.521900;17.556100;255;0;0;0.010595
228.186600;15494.674999;14.616300;255;0;0;0.010595
228.596900;15496.867500;14.381900;255;0;0;0.024284
232.510800;15508.029400;17.081900;255;0;0;0.010357
229.290100;15501.114400;15.452900;255;0;0;0.015714
228.571900;15489.913300;19.967401;255;0;0;0.015595
234.496800;15510.678700;14.865300;255;0;0;0.011667
229.364200;15486.160101;17.505500;255;0;0;0.022380
233.615000;15509.607100;15.410600;255;0;0;0.022261
230.619600;15503.963300;14.397000;255;0;0;0.010833
235.465300;15511.776600;15.019600;255;0;0;0.024403
230.788000;15505.008900;15.620400;255;0;0;0.018213
229.195100;15500.025600;19.334100;255;0;0;0.011786
228.758000;15487.690300;18.454299;255;0;0;0.017618
230.878200;15478.495300;18.271200;255;0;0;0.022023
228.238100;15495.767401;16.771300;255;0;0;0.010952
229.226800;15500.857700;14.594600;255;0;0;0.012500
228.389000;15489.607201;17.621700;255;0;0;0.019285
231.352200;15478.732800;18.759900;255;0;0;0.010952
228.414000;15489.458300;17.666000;255;0;0;0.014880
230.654700;15478.372898;23.015399;255;0;0;0.018809
228.591700;15488.527300;21.668201;255;0;0;0.011428
228.213000;15491.493099;25.356500;255;0;0;0.021546
232.765300;15508.407800;17.963100;255;0;0;0.014285
228.563300;15494.342400;24.286500;255;0;0;0.019166
229.371700;15486.063900;22.950300;255;0;0;0.014404
235.578200;15511.891800;19.665201;255;0;0;0.020118
228.180800;15494.644699;20.944499;255;0;0;0.011190
228.945300;15497.371901;24.284400;255;0;0;0.021904
229.385200;15486.034401;23.423999;255;0;0;0.013571
230.869900;15504.658100;24.245500;255;0;0;0.013690
233.471900;15509.394700;17.692200;255;0;0;0.012262
230.798600;15504.979900;20.263500;255;0;0;0.016666
229.545800;15501.951300;21.548400;255;0;0;0.010595
230.996100;15505.407400;24.244300;255;0;0;0.010476
228.146500;15492.956600;24.490100;255;0;0;0.015238
229.361100;15486.073299;23.154500;255;0;0;0.023451
231.671700;15506.629000;22.054099;255;0;0;0.015595
228.477300;15489.201200;22.958400;255;0;0;0.012381
229.528200;15501.861400;24.460500;255;0;0;0.013690
235.748000;15512.045900;18.000900;255;0;0;0.011905
230.268000;15503.248200;23.984901;255;0;0;0.024284
232.130400;15506.621500;24.298101;255;0;0;0.010476
228.430100;15497.179899;24.494300;255;0;0;0.012024
228.149000;15492.837900;24.330100;255;0;0;0.024879
235.409000;15511.692000;25.797300;255;0;0;0.010714
229.264200;15500.260000;20.970201;255;0;0;0.014166
231.840900;15506.955600;24.951400;255;0;0;0.010238
234.016600;15510.081000;24.450200;255;0;0;0.015952
248.897599;15519.402600;27.542899;255;0;0;0.019999
234.551600;15510.742100;27.331300;255;0;0;0.011547
232.563200;15508.116300;26.957700;255;0;0;0.019761
228.607800;15489.709700;28.936599;255;0;0;0.017023
235.141400;15511.402600;23.663301;255;0;0;0.013214
229.551900;15502.003800;27.044799;255;0;0;0.023451
234.551400;15510.742900;25.360700;255;0;0;0.010714
233.668300;15509.643100;25.350999;255;0;0;0.012143
237.851900;15513.982000;27.342901;255;0;0;0.017618
235.462900;15511.753000;6.287200;255;0;0;0.010952
236.504200;15512.808000;5.100800;255;0;0;0.021427
233.736300;15509.756200;5.110700;255;0;0;0.015357
236.803800;15513.082900;5.109200;255;0;0;0.020356
234.400500;15510.562000;4.763600;255;0;0;0.010357
229.506100;15501.816100;5.563200;255;0;0;0.017142
235.406500;15511.688800;5.424900;255;0;0;0.011786
237.030400;15513.283600;6.194900;255;0;0;0.010952
245.735900;15518.248700;26.270900;255;0;0;0.010119
245.050300;15518.231000;18.705100;255;0;0;0.019047
244.939300;15518.177800;18.706701;255;0;0;0.010595
238.389200;15514.414100;8.806600;255;0;0;0.010714
236.919400;15513.189600;8.966500;255;0;0;0.018451
236.782300;15513.052100;11.088000;255;0;0;0.013214
239.389800;15515.157700;25.262800;255;0;0;0.011667
234.084500;15510.187100;8.446700;255;0;0;0.011547
238.078700;15514.168900;15.961900;255;0;0;0.012738
236.355600;15512.628400;22.058000;255;0;0;0.018094
236.761200;15513.029900;11.846500;255;0;0;0.010238
242.548000;15517.084500;9.661700;255;0;0;0.011547
236.246600;15512.546400;25.261600;255;0;0;0.010952
236.671200;15512.948200;24.934100;255;0;0;0.011547
237.842900;15513.973600;15.961200;255;0;0;0.017023
238.923900;15514.466800;11.090600;255;0;0;0.019880
236.884400;15513.143100;11.089100;255;0;0;0.011071
241.064600;15516.223400;25.355100;255;0;0;0.014166
236.820700;15513.094200;15.145600;255;0;0;0.014047
234.703500;15510.579100;9.734500;255;0;0;0.013571
234.682100;15510.555000;11.057900;255;0;0;0.012619
239.929400;15515.536600;24.534299;255;0;0;0.018690
238.141300;15514.225600;22.388299;255;0;0;0.016547
236.787500;15513.040500;22.051400;255;0;0;0.011309
237.073900;15513.014700;10.679100;255;0;0;0.014523
238.646400;15514.585700;24.434100;255;0;0;0.024165
237.100600;15513.350300;11.590600;255;0;0;0.019642
236.159700;15512.139200;17.679200;255;0;0;0.018809
237.736600;15513.874400;15.257200;255;0;0;0.010952
237.742900;15513.882300;14.997800;255;0;0;0.011428
235.974300;15511.895600;24.296300;255;0;0;0.013452
239.728000;15515.407300;18.180801;255;0;0;0.022618
237.664700;15513.817600;15.970800;255;0;0;0.014166
236.113900;15512.394200;24.452400;255;0;0;0.015476
236.667100;15512.942500;17.691400;255;0;0;0.012143
233.151100;15508.966600;8.278500;255;0;0;0.011071
232.636800;15508.228100;11.567100;255;0;0;0.016785
233.378300;15509.290300;7.174300;255;0;0;0.019761
228.158100;15492.870800;8.017100;255;0;0;0.011786
228.218500;15491.358000;8.848700;255;0;0;0.013690
231.774100;15506.377000;11.079600;255;0;0;0.021070
233.374900;15509.293600;6.679800;255;0;0;0.024522
232.543900;15508.095600;11.708000;255;0;0;0.018571
232.441800;15507.934800;11.079100;255;0;0;0.017380
235.572100;15511.892200;9.462500;255;0;0;0.023332
228.751100;15487.647600;7.616000;255;0;0;0.024522
229.124300;15486.118401;7.746100;255;0;0;0.020832
228.958900;15486.835699;7.611000;255;0;0;0.013214
228.209700;15495.117100;13.312500;255;0;0;0.013571
230.263200;15503.256900;6.891100;255;0;0;0.011428
229.054300;15500.256100;8.852200;255;0;0;0.015238
230.273300;15503.274000;9.452800;255;0;0;0.016666
229.365100;15486.067801;9.834000;255;0;0;0.014404
229.522000;15501.814600;7.723500;255;0;0;0.013333
229.395600;15501.544800;7.975100;255;0;0;0.023570
229.815200;15485.045700;11.210600;255;0;0;0.010595
228.571900;15489.931400;10.967400;255;0;0;0.012500
228.699000;15497.396200;11.086400;255;0;0;0.019880
228.247900;15491.068100;12.148500;255;0;0;0.013571
229.194800;15500.047400;10.499400;255;0;0;0.010476
228.500600;15497.823799;11.288700;255;0;0;0.011309
231.506400;15506.394600;12.612100;255;0;0;0.021427
228.206200;15491.677799;14.616400;255;0;0;0.011309
232.728400;15508.354900;15.004100;255;0;0;0.015595
230.561200;15478.177101;14.249100;255;0;0;0.015238
230.485900;15504.317800;15.459300;255;0;0;0.021427
232.784500;15508.424300;15.761200;255;0;0;0.012024
235.750100;15512.063100;15.401600;255;0;0;0.018332
233.035500;15508.794600;15.880800;255;0;0;0.018809
228.834000;15487.355499;18.459400;255;0;0;0.020237
228.228200;15495.643999;16.974800;255;0;0;0.010833
231.509900;15506.394000;14.155800;255;0;0;0.017737
231.441700;15478.791302;17.967700;255;0;0;0.020832
229.444900;15485.068300;17.706900;255;0;0;0.013690
228.995000;15486.650400;17.969400;255;0;0;0.024760
229.814500;15485.050699;14.919600;255;0;0;0.015952
229.200400;15500.029100;17.233500;255;0;0;0.020594
228.230700;15491.641100;14.339500;255;0;0;0.015595
229.072200;15500.355700;15.453200;255;0;0;0.016190
230.567800;15503.962800;17.688600;255;0;0;0.018332
234.591300;15510.801700;17.112100;255;0;0;0.017499
228.717600;15487.884001;18.466501;255;0;0;0.012619
228.741900;15489.565701;16.360100;255;0;0;0.010357
228.754600;15487.875799;17.488800;255;0;0;0.015357
230.332600;15503.954600;18.753299;255;0;0;0.015476
232.505500;15508.032600;19.483600;255;0;0;0.013333
229.548800;15484.766199;17.883300;255;0;0;0.016785
228.177400;15494.848301;18.748300;255;0;0;0.012619
230.908300;15478.506901;18.462501;255;0;0;0.018213
229.227200;15500.849400;17.892300;255;0;0;0.014761
232.026500;15507.262800;14.762500;255;0;0;0.010000
228.707400;15487.919600;20.825300;255;0;0;0.014166
229.643500;15484.462700;18.356401;255;0;0;0.022142
228.627400;15494.045500;24.284000;255;0;0;0.021665
229.328900;15486.058599;22.753499;255;0;0;0.017975
230.801000;15504.977700;20.935500;255;0;0;0.017618
229.690500;15502.300700;24.495599;255;0;0;0.011905
228.278500;15493.337700;22.474799;255;0;0;0.012143
232.017200;15507.265800;17.667100;255;0;0;0.019523
231.939600;15506.681700;17.677100;255;0;0;0.012738
229.774900;15485.024300;23.744300;255;0;0;0.012619
229.487900;15484.912001;23.982801;255;0;0;0.022261
228.476400;15489.197901;23.489700;255;0;0;0.010000
233.131300;15508.917400;26.000100;255;0;0;0.011786
228.758100;15499.065800;24.484599;255;0;0;0.022142
228.931100;15486.924999;20.825799;255;0;0;0.023927
235.757900;15512.054600;17.693700;255;0;0;0.010238
230.333100;15503.959900;22.050000;255;0;0;0.012143
228.181600;15494.741800;25.348001;255;0;0;0.012262
235.884000;15512.187900;25.301000;255;0;0;0.010357
235.437800;15511.719300;26.664100;255;0;0;0.010238
230.734200;15504.360100;24.235299;255;0;0;0.023927
228.481400;15489.176201;22.189800;255;0;0;0.011786
229.013300;15500.125200;25.354801;255;0;0;0.017856
234.471100;15510.648600;21.674300;255;0;0;0.011071
232.100200;15507.382100;21.732101;255;0;0;0.011905
228.625700;15493.160200;24.285301;255;0;0;0.020118
235.679300;15511.995600;28.360601;255;0;0;0.022856
228.250500;15493.337200;23.666900;255;0;0;0.011071
230.980400;15505.379200;23.792699;255;0;0;0.011190
230.831900;15505.086400;23.492999;255;0;0;0.014404
232.917000;15508.586300;24.344199;255;0;0;0.023332
231.631000;15506.591600;24.554099;255;0;0;0.014047
229.968100;15503.137300;27.110999;255;0;0;0.020832
229.618100;15501.458400;28.414199;255;0;0;0.015476
242.643399;15516.734100;27.590900;255;0;0;0.020237
232.616700;15508.183300;24.681400;255;0;0;0.010238
229.521000;15500.552600;27.590301;255;0;0;0.016785
229.599100;15502.108900;27.369100;255;0;0;0.014404
230.089400;15503.356700;26.463201;255;0;0;0.013214
233.499400;15509.407300;24.470701;255;0;0;0.014999
242.853900;15517.235500;27.524900;255;0;0;0.010476
229.522400;15501.806800;26.759401;255;0;0;0.016428
232.058200;15509.251500;4.003700;255;0;0;0.014642
234.567400;15510.748500;4.560900;255;0;0;0.014285
232.341800;15509.670800;4.002000;255;0;0;0.012738
233.981800;15510.041700;4.559200;255;0;0;0.010833
237.155700;15513.353800;4.722300;255;0;0;0.012143
232.297300;15507.678100;4.364700;255;0;0;0.013571
234.655200;15510.856400;4.556300;255;0;0;0.015952
234.590000;15510.797100;6.250200;255;0;0;0.014523
236.253900;15512.559600;5.433900;255;0;0;0.012619
234.253500;15510.383300;4.788900;255;0;0;0.010357
235.034300;15511.280200;5.271800;255;0;0;0.010476
230.555000;15504.437100;5.548700;255;0;0;0.010714
232.643300;15508.230000;5.143900;255;0;0;0.011309
238.199300;15514.278500;15.142900;255;0;0;0.023808
242.560400;15516.983100;15.838500;255;0;0;0.010119
242.015700;15516.798400;25.248700;255;0;0;0.010119
238.821800;15514.739900;22.057800;255;0;0;0.018690
241.485000;15516.508200;11.085400;255;0;0;0.018451
243.875501;15517.713700;25.038200;255;0;0;0.023094
242.536000;15517.018200;20.626899;255;0;0;0.013333
242.501000;15517.065900;15.401200;255;0;0;0.016666
237.947000;15514.054200;26.472900;255;0;0;0.011309
245.729501;15518.224000;14.389600;255;0;0;0.021904
238.136200;15514.218700;8.805500;255;0;0;0.013571
249.304601;15519.513000;14.861600;255;0;0;0.024760
245.691699;15518.327300;23.307901;255;0;0;0.010476
247.127401;15518.947100;23.568900;255;0;0;0.018213
240.902000;15516.171300;9.222800;255;0;0;0.020475
236.614700;15512.892700;17.966600;255;0;0;0.012738
240.984000;15516.171000;26.230899;255;0;0;0.019285
236.779300;15513.019500;24.456399;255;0;0;0.015952
243.703799;15517.653200;16.418600;255;0;0;0.017261
240.239800;15515.745100;15.603000;255;0;0;0.020594
236.278400;15512.544400;11.298700;255;0;0;0.011190
237.297000;15513.500700;15.250600;255;0;0;0.010595
235.997700;15512.304200;11.083900;255;0;0;0.013809
235.580500;15511.881200;7.064800;255;0;0;0.011428
235.377000;15511.664400;11.252400;255;0;0;0.011071
236.505200;15512.796100;25.260400;255;0;0;0.013333
235.476400;15511.775300;6.853300;255;0;0;0.016190
233.746400;15509.758500;11.079100;255;0;0;0.012262
232.608300;15508.193500;10.564600;255;0;0;0.019523
234.673500;15510.588100;7.251500;255;0;0;0.013928
235.244200;15511.537000;11.595700;255;0;0;0.023570
236.887400;15513.153500;15.409200;255;0;0;0.013095
232.440200;15507.940900;11.186200;255;0;0;0.019999
236.371900;15512.640000;24.451801;255;0;0;0.017142
236.095800;15512.399900;25.239400;255;0;0;0.011905
234.701900;15510.579600;13.652200;255;0;0;0.011547
230.800200;15504.956400;7.993300;255;0;0;0.014761
230.266200;15503.256900;6.357000;255;0;0;0.014166
229.797200;15485.038500;10.262500;255;0;0;0.012381
230.718900;15478.399700;12.985500;255;0;0;0.010833
229.217900;15486.020901;10.599300;255;0;0;0.010000
228.450500;15489.160999;7.755700;255;0;0;0.020118
230.115700;15503.406200;8.019300;255;0;0;0.011547
228.416200;15489.360399;7.960000;255;0;0;0.024641
228.209700;15495.118500;7.339000;255;0;0;0.013452
229.766800;15485.023100;10.262400;255;0;0;0.012976
228.543300;15496.728901;13.542300;255;0;0;0.013928
231.328200;15478.723801;11.884900;255;0;0;0.012976
228.562100;15489.952900;9.643300;255;0;0;0.014285
229.166400;15500.066600;8.945700;255;0;0;0.010000
229.597200;15501.196700;7.786000;255;0;0;0.021189
229.782600;15485.027800;12.976800;255;0;0;0.010238
229.980000;15503.064700;7.996100;255;0;0;0.011547
229.339500;15486.059601;12.757000;255;0;0;0.014047
228.805200;15497.984699;11.087700;255;0;0;0.018809
229.029400;15500.156100;8.853400;255;0;0;0.016428
228.599600;15496.736300;11.082800;255;0;0;0.023332
229.416700;15485.162201;14.948900;255;0;0;0.011309
230.633400;15478.356701;14.833700;255;0;0;0.012857
228.557400;15496.697901;15.904700;255;0;0;0.010238
228.495800;15488.940701;13.847300;255;0;0;0.010595
228.569700;15489.923700;13.739700;255;0;0;0.010119
228.565600;15490.148701;14.383400;255;0;0;0.021308
229.203700;15500.044600;14.132700;255;0;0;0.011786
228.347700;15493.334600;15.943800;255;0;0;0.014523
230.796600;15478.440899;13.447000;255;0;0;0.011190
228.221300;15495.650801;14.962600;255;0;0;0.011309
230.563600;15478.175598;15.537900;255;0;0;0.012619
229.563800;15501.926600;14.618100;255;0;0;0.010714
228.518800;15488.751400;17.512300;255;0;0;0.019642
229.626700;15501.361200;14.394500;255;0;0;0.012738
228.779900;15498.055901;17.670300;255;0;0;0.024641
230.169300;15503.548500;14.597300;255;0;0;0.010476
228.242600;15491.058201;18.748901;255;0;0;0.014047
229.202300;15500.041300;13.939800;255;0;0;0.011190
230.290800;15503.841400;14.596900;255;0;0;0.010952
228.975300;15486.884001;17.493400;255;0;0;0.010595
229.382300;15486.039301;20.259200;255;0;0;0.011905
230.280500;15503.294900;14.352500;255;0;0;0.013928
228.649600;15498.501400;19.016401;255;0;0;0.018213
228.150600;15493.973700;18.748700;255;0;0;0.013214
235.574400;15511.891200;17.069900;255;0;0;0.023094
234.109100;15510.215600;17.998000;255;0;0;0.016071
228.747500;15489.569599;19.766700;255;0;0;0.011786
228.489200;15490.681801;17.651300;255;0;0;0.015595
229.289300;15500.360200;17.669900;255;0;0;0.012143
230.867500;15478.489899;17.987600;255;0;0;0.022261
231.530600;15478.828300;16.243000;255;0;0;0.011786
228.417700;15490.342199;17.643400;255;0;0;0.011309
228.735700;15489.637400;24.293701;255;0;0;0.010833
233.378500;15509.287700;17.495400;255;0;0;0.019404
230.700000;15478.387600;23.383701;255;0;0;0.010833
234.220000;15510.350100;18.000300;255;0;0;0.016547
228.209900;15491.534401;25.346000;255;0;0;0.010952
229.456800;15485.036900;20.789701;255;0;0;0.011786
228.225900;15495.354300;24.374200;255;0;0;0.019999
228.390500;15489.599899;23.643899;255;0;0;0.016190
228.576600;15492.817699;24.283401;255;0;0;0.021904
228.356600;15493.853100;24.256000;255;0;0;0.015119
228.562700;15498.047701;24.355100;255;0;0;0.019999
228.366200;15489.929701;25.826801;255;0;0;0.012976
229.315300;15485.479300;24.488401;255;0;0;0.012619
228.666600;15498.462000;20.943700;255;0;0;0.012857
228.293700;15490.558800;25.351400;255;0;0;0.016666
228.329000;15493.333900;22.671399;255;0;0;0.010000
228.481500;15497.696899;24.635101;255;0;0;0.013095
230.404600;15503.552900;20.987300;255;0;0;0.020475
232.706300;15508.282800;24.340801;255;0;0;0.023808
230.516200;15504.371300;24.459501;255;0;0;0.017142
230.800800;15504.985300;22.547201;255;0;0;0.010476
235.513800;15511.791100;24.499500;255;0;0;0.010833
231.405000;15506.188700;23.266500;255;0;0;0.010357
234.293600;15510.413800;24.323501;255;0;0;0.014166
228.143700;15494.147301;24.474500;255;0;0;0.014166
228.401900;15494.650101;20.985601;255;0;0;0.020118
233.166300;15508.948900;24.354400;255;0;0;0.024879
228.650900;15498.501900;22.181501;255;0;0;0.016785
235.109600;15511.361300;22.187801;255;0;0;0.011905
231.137500;15504.656200;24.289899;255;0;0;0.018094
235.019800;15511.264100;24.497699;255;0;0;0.013333
228.313900;15493.340900;23.757900;255;0;0;0.016904
232.530700;15508.032800;24.460800;255;0;0;0.023689
234.633900;15510.386300;24.291601;255;0;0;0.017856
232.826000;15507.663300;24.297300;255;0;0;0.011428
233.287700;15509.115400;24.356099;255;0;0;0.019999
230.126400;15503.450700;25.354600;255;0;0;0.016904
230.638200;15502.875100;24.282701;255;0;0;0.024879
237.283900;15512.825300;27.593700;255;0;0;0.016309
234.516800;15510.699000;26.560701;255;0;0;0.023094
232.624600;15508.178100;24.494600;255;0;0;0.014285
237.552100;15513.724700;27.148799;255;0;0;0.010238
233.664200;15509.658600;21.493600;255;0;0;0.017856
246.790900;15518.829800;27.346799;255;0;0;0.010000
228.549500;15489.945101;28.677301;255;0;0;0.011428
233.027500;15508.763300;27.344800;255;0;0;0.010476
237.858400;15513.941300;4.690300;255;0;0;0.019999
234.016000;15510.086200;4.676100;255;0;0;0.013095
236.374300;15512.627400;4.724600;255;0;0;0.014642
233.636300;15509.596500;4.453600;255;0;0;0.022737
238.241000;15514.306200;5.119100;255;0;0;0.019285
237.072600;15513.017800;6.468100;255;0;0;0.012500
235.264900;15511.534100;5.360600;255;0;0;0.011786
248.926400;15519.395100;16.818100;255;0;0;0.015357
245.719600;15518.247500;26.741901;255;0;0;0.014166
238.366000;15514.392700;21.969100;255;0;0;0.010357
238.387500;15514.414100;15.390500;255;0;0;0.012738
239.191000;15515.027100;17.684900;255;0;0;0.021904
236.902400;15513.152800;26.463300;255;0;0;0.021308
239.924300;15515.528500;26.985601;255;0;0;0.014999
236.055300;15511.984400;24.285301;255;0;0;0.024522
236.019200;15512.297700;24.444301;255;0;0;0.010476
239.119200;15514.981200;15.406500;255;0;0;0.023808
248.937200;15519.336100;17.249100;255;0;0;0.019880
242.548600;15517.087100;9.566500;255;0;0;0.013452
239.365000;15515.142500;15.220900;255;0;0;0.012024
238.495300;15514.510100;8.810900;255;0;0;0.020594
236.976700;15513.088100;20.252300;255;0;0;0.013333
236.611300;15512.902600;15.410400;255;0;0;0.016785
236.267500;15512.541100;24.454999;255;0;0;0.016904
239.874400;15515.496400;25.139900;255;0;0;0.015476
235.577700;15511.884400;10.963100;255;0;0;0.016071
234.691600;15510.917400;9.266800;255;0;0;0.019047
236.906900;15513.152800;26.763999;255;0;0;0.017499
236.922000;15513.179600;17.979400;255;0;0;0.011786
234.680000;15510.908300;10.613100;255;0;0;0.019642
235.576700;15511.894500;12.560100;255;0;0;0.022023
234.703100;15510.577800;13.204700;255;0;0;0.013809
232.925100;15508.646800;12.657000;255;0;0;0.013571
234.771400;15511.014800;10.670400;255;0;0;0.018571
228.555200;15488.575600;8.252100;255;0;0;0.015476
228.209300;15491.689501;6.142800;255;0;0;0.024522
232.510200;15508.028600;13.091600;255;0;0;0.012500
232.556200;15508.097600;13.523600;255;0;0;0.011428
229.633900;15502.125100;8.019500;255;0;0;0.012143
